# .PCD v0.7 - Point Cloud Data file format
VERSION 0.7
FIELDS x y z
SIZE 4 4 4
TYPE F F F
COUNT 1 1 1
WIDTH 1445
HEIGHT 1
VIEWPOINT 0 0 0 1 0 0 0
POINTS 1445
DATA ascii
-0.60475236 0.61352515 0.66814935
-0.60546875 0.59765625 0.67867577
-0.60546875 0.60395372 0.67496866
-0.60500455 0.58343381 0.68315148
-0.60546875 0.58203125 0.63294178
-0.60546875 0.58696616 0.62890625
-0.60546875 0.57421875 0.68681967
-0.60546875 0.58023399 0.68359375
-0.60546875 0.5797565 0.63671875
-0.60546875 0.57022613 0.69140625
-0.60546875 0.57264781 0.68359375
-0.60546875 0.53646582 0.64679378
-0.60546875 0.5424667 0.63671875
-0.60546875 0.53337628 0.65234375
-0.60455751 0.51171875 0.69087934
-0.60391015 0.50418103 0.74446887
-0.61328125 0.61328125 0.66971892
-0.61328125 0.6041016 0.67439365
-0.61328125 0.58984375 0.68120414
-0.61328125 0.58203125 0.67861068
-0.60768044 0.57421875 0.68359375
-0.59765625 0.59486455 0.60546875
-0.33433133 0.58203125 0.98828125
-0.16015625 0.62109375 0.65494472
0.14453125 0.53515625 0.98511988
0.50381052 0.51945323 0.58203125
0.50390172 0.51952779 0.57410175
0.50421381 0.5197711 0.54296875
0.50441831 0.51993436 0.53515625
0.37109375 0.48828125 0.7340979
0.09765625 0.45746329 0.8855207
0.42578125 0.51912558 0.9417547
-0.14590125 0.46463895 0.74556589
-0.58017194 0.55859375 0.65388989
-0.043468229 0.60515368 0.66026205
-0.30859375 0.56551337 0.67537445
-0.15234375 0.56322396 0.66705912
0.47211337 0.55859375 1.2070312
0.47052401 0.55078125 0.67578125
0.46828765 0.55859375 1.1289062
-0.55078125 0.50102067 0.77734375
0.46781909 0.53515625 0.62109375
-0.55821723 0.52734375 0.7302497
-0.14453125 0.51012963 0.94921875
0.46996239 0.55859375 0.43359375
-0.14453125 0.47325477 0.71567667
-0.14453125 0.47072521 0.72265625
-0.29296875 0.58203125 0.66545796
0.47265625 0.55446339 0.99609375
-0.26953125 0.53488255 0.69120824
0.32421875 0.51171875 0.70540261
-0.26171875 0.50610536 0.71731615
-0.13671875 0.51171875 0.69359893
0.29400131 0.55070943 0.67573923
0.15234375 0.5125705 0.95654297
-0.17578125 0.4678103 0.74609375
0.37109375 0.46649599 0.76171875
0.37109375 0.46831661 0.75390625
0.37109375 0.46302754 0.86328125
0.37109375 0.46117613 0.85546875
0.37109375 0.46010926 0.84765625
0.37109375 0.45931342 0.83984375
0.37109375 0.46026862 0.83203125
0.37109375 0.46113384 0.82421875
0.37109375 0.46236101 0.81640625
0.37109375 0.46347696 0.77734375
0.37155721 0.46479028 0.76953125
0.36328125 0.46484375 0.76859009
0.36347619 0.46481857 0.87116241
0.36328125 0.46229118 0.86328125
0.36328125 0.4647516 0.76953125
0.35546875 0.46670949 0.75390625
0.35546875 0.46144432 0.86328125
0.35546875 0.45991632 0.80859375
0.35546875 0.46030635 0.80078125
0.35546875 0.46244228 0.77734375
-0.54296875 0.5353238 0.72292793
0.35546875 0.46390462 0.76953125
0.35632661 0.46474493 0.76118129
0.35584581 0.45698527 0.83248985
0.34765625 0.45925224 0.80859375
0.33984375 0.45715955 0.8168422
0.29296875 0.61328125 0.65336329
0.08984375 0.49609375 0.93931514
0.33984375 0.45907542 0.78515625
0.08984375 0.49028683 0.93359375
-0.41796875 0.51515508 0.91796875
0.33984375 0.45476231 0.82421875
0.33203125 0.45456615 0.83203125
0.72874057 0.54336488 0.28515625
0.33203125 0.45405003 0.82421875
-0.21484375 0.56783801 0.66796875
0.53515625 0.49898759 1.2304688
0.44921875 0.62984359 0.41015625
0.31640625 0.45537087 0.85546875
0.31640625 0.45436653 0.84765625
0.31640625 0.45578244 0.80078125
-0.39453125 0.50336254 0.73828125
0.31640625 0.45632201 0.79296875
-0.39453125 0.49913576 0.73046875
0.30859375 0.45917162 0.87109375
0.30078125 0.4538365 0.85546875
0.29296875 0.45725369 0.87044239
0.29296875 0.45477387 0.86328125
0.29296875 0.45117226 0.83984375
0.29296875 0.44993031 0.82421875
0.28515625 0.46030304 0.76171875
0.28515625 0.45052513 0.83984375
0.28515625 0.45126894 0.80859375
-0.08984375 0.49609375 0.93897468
0.28515625 0.45671794 0.77734375
0.27734375 0.45657447 0.77734375
0.27814552 0.44914547 0.83279616
0.27734375 0.44887754 0.8212294
-0.05078125 0.50560361 0.94748729
0.26953125 0.45632544 0.77734375
-0.12890625 0.54222226 0.67542589
0.26953125 0.44821927 0.83203125
0.26171875 0.45424148 0.87109375
0.26171875 0.4517124 0.86328125
0.26171875 0.45015889 0.85546875
0.26171875 0.44834977 0.83984375
0.26171875 0.44787043 0.81640625
0.25390625 0.44760472 0.83984375
0.25390625 0.44888568 0.80636436
0.12109375 0.52308053 0.98046875
0.12109375 0.52576423 0.96484375
0.10546875 0.53351647 0.97265625
-0.53515625 0.5707038 0.95703125
0.10546875 0.51828665 0.98046875
0.09765625 0.51953125 0.97196263
0.09765625 0.52663708 0.96484375
0.09765625 0.5138762 0.95503372
-0.06640625 0.49972734 0.94140625
0.08984375 0.52810889 0.98739457
0.08984375 0.52734375 0.96593958
0.08984375 0.51953125 0.97823095
0.3415913 0.48750171 0.73021537
0.08984375 0.51356006 0.95529538
0.08203125 0.54310799 0.98061627
0.45605123 0.59765625 0.37890625
0.082397372 0.53524572 0.97267264
0.45193991 0.60546875 0.44140625
0.07421875 0.52734375 0.97568214
0.37109375 0.46190786 0.80078125
0.06640625 0.54588133 0.98046875
0.06640625 0.53807092 0.97265625
0.06640625 0.51374239 0.98046875
0.05859375 0.54673779 0.98046875
0.05859375 0.52734375 0.97536963
0.05859375 0.52734375 0.96650642
-0.01171875 0.50547177 0.94767869
0.46093425 0.58203125 1.3007812
0.05859375 0.51953125 0.97567493
0.05078125 0.53761351 0.97265625
0.05078125 0.53515625 0.97104847
0.05078125 0.53465497 0.98085165
0.45706818 0.5821138 0.52790546
0.45740217 0.58287191 0.50390625
0.45731011 0.58267069 0.51171875
0.02734375 0.54296875 0.97819787
0.02734375 0.53531051 0.97256255
0.02734375 0.53330922 0.98046875
-0.60546875 0.51396495 0.86328125
0.02734375 0.52734375 0.97710145
0.02734375 0.52256495 0.98046875
0.02734375 0.51953125 0.95958197
-0.62109375 0.56570506 0.94194335
0.02734375 0.51353556 0.95534605
0.01953125 0.53160906 0.98046875
0.01171875 0.57069945 0.99609375
0.01171875 0.54296875 0.97875732
-0.53515625 0.50943661 0.87890625
0.01171875 0.52734375 0.96653003
0.00390625 0.52734375 0.96653205
0.4676193 0.55859375 0.51953125
0.4679313 0.55859375 0.50390625
0.46694964 0.55859375 0.55078125
0.46644172 0.55859375 0.55859375
0.46746212 0.55859375 0.53515625
0.46733373 0.55859375 0.54296875
-0.56640625 0.49809873 0.73828125
0.56631666 0.49607471 0.40978491
0.32421875 0.45388043 0.81640625
0.56502736 0.49583074 0.43359375
-0.56640625 0.49997166 0.76953125
0.56640625 0.49514002 0.45703125
-0.56640625 0.50361603 0.69921875
0.56640625 0.49389818 0.49609375
-0.10542051 0.54282504 0.94122314
0.44905657 0.60487586 1.2929688
0.44918981 0.60540664 1.3007812
-0.18359375 0.46953261 0.74609375
0.45226094 0.63671875 0.29296875
0.45236129 0.63671875 0.27734375
0.45249349 0.63671875 0.26953125
0.45262614 0.63671875 0.26171875
0.4512656 0.62890625 0.35546875
0.45157662 0.62890625 0.33984375
0.45133278 0.62890625 0.33203125
0.45228389 0.62890625 0.31640625
0.45215386 0.62890625 0.30078125
0.45305958 0.62890625 0.28515625
0.45323995 0.62890625 0.27734375
0.45334864 0.62890625 0.26953125
0.27734375 0.48828125 0.72579706
-0.33984375 0.58021593 0.66796875
0.66015625 0.49934095 0.62109375
0.44420823 0.62890625 1.0507812
0.44371179 0.62890625 1.0742188
0.44370323 0.62890625 1.0664062
-0.13671875 0.58203125 0.6588397
0.44349045 0.62890625 1.0820312
0.44325319 0.62890625 1.0976562
0.44382319 0.62890625 1.0585938
-0.08203125 0.47257608 0.7303158
-0.62890625 0.6074211 0.61328125
0.66796875 0.53942901 0.31640625
0.71484375 0.53824586 0.33203125
0.66796875 0.53978711 0.32421875
0.71484375 0.5377351 0.33984375
-0.00390625 0.45659083 0.76066732
0.58984375 0.49031076 0.69140625
0.61328125 0.49682015 0.26953125
0.61328125 0.49713057 0.26171875
0.61328125 0.49686199 0.25390625
0.60546875 0.45179582 0.75390625
0.61340195 0.49610105 0.29296875
-0.37109375 0.49736539 0.73046875
0.60546875 0.49383318 0.37109375
0.60546875 0.49423343 0.35546875
0.60546875 0.49533719 0.33203125
0.03515625 0.54296875 0.67733687
0.60546875 0.49544632 0.30078125
0.12890625 0.48694396 0.93520021
-0.60224795 0.58984375 0.59613919
0.58984375 0.49642035 0.28515625
-0.37890625 0.56640625 0.67922515
0.58984375 0.49645799 0.27734375
0.58984375 0.49664009 0.26953125
0.58984375 0.49615079 0.25336343
0.58984375 0.49462762 0.35546875
0.58984375 0.49517214 0.33984375
0.62109375 0.49173194 0.66015625
-0.37890625 0.53682524 0.70083958
0.58891714 0.49598452 0.31640625
0.58910424 0.49601483 0.29181939
0.58203125 0.49740306 0.27734375
0.57483602 0.49622482 0.36540297
0.57421875 0.49760905 0.33203125
0.57421875 0.49795392 0.30078125
0.57401145 0.49605006 0.37109375
0.56640625 0.49956685 0.32421875
0.56640625 0.50039017 0.27734375
0.47076049 0.57421875 0.24609375
0.56640625 0.50022805 0.26171875
0.46945518 0.57421875 0.26171875
0.56640625 0.49967882 0.25390625
0.46694568 0.57421875 0.30859375
0.46607637 0.56640625 1.1914062
0.55859375 0.5018537 0.28515625
0.55859375 0.501908 0.27734375
0.55078125 0.50151795 0.37109375
0.55078125 0.50362986 0.32421875
0.35546875 0.49609375 0.72380948
0.35546875 0.49046582 0.73046875
0.46473193 0.58172417 0.29296875
0.46484375 0.56929284 1.1992188
0.46484375 0.56944591 1.2070312
0.46349186 0.58203125 0.30078125
0.46484375 0.56779104 1.1835938
0.55859375 0.50142497 0.29296875
-0.41796875 0.48995483 0.87109375
0.15234375 0.52384388 0.97265625
0.37890625 0.59765625 0.65551698
0.51953125 0.50924063 0.55859375
0.08984375 0.50505477 0.94805169
0.34765625 0.45926028 0.80078125
0.40234375 0.63671875 0.64358968
-0.58984375 0.60546875 0.67168278
0.30859375 0.45566881 0.79296875
0.03515625 0.4797073 0.91882783
-0.16015625 0.45040944 0.83203125
0.47384992 0.55859375 1.2695312
0.32421875 0.51953125 0.69828391
-0.14453125 0.46204197 0.88671875
0.40234375 0.63278723 0.64453125
-0.27284047 0.57421875 0.66796875
0.72047424 0.54296875 0.52734375
0.72265625 0.53950316 0.48828125
-0.55078125 0.57238758 0.95703125
-0.59731507 0.57421875 0.69137311
-0.26171875 0.62109375 0.65531135
0.21484375 0.45887291 0.76171875
0.41015625 0.57421875 0.97879428
0.42578125 0.59844637 0.65275419
0.47030386 0.55859375 1.1835938
-0.34178379 0.48018137 0.87185192
-0.33984375 0.4770852 0.86328125
-0.56640625 0.50181961 0.77734375
0.56640625 0.49528036 0.44921875
0.56640625 0.49473429 0.47265625
0.56640625 0.49490505 0.46484375
0.56640625 0.49410188 0.48828125
0.56640625 0.49989876 0.29296875
0.47123951 0.57421875 0.23046875
0.47068965 0.57421875 0.25390625
0.56640625 0.49363038 0.51953125
0.06640625 0.54296875 0.67781943
0.15234375 0.47070146 0.91306448
0.00390625 0.61328125 0.65435576
0.15234375 0.47405744 0.91796875
0.47265625 0.48804435 0.73805517
-0.00390625 0.45936826 0.75390625
0.71360075 0.52806181 0.58203125
-0.00390625 0.45340064 0.86328125
-0.49609375 0.60546875 0.66571993
-0.00390625 0.45134524 0.85546875
-0.00390625 0.44926077 0.84744185
-0.00390625 0.45150459 0.77734375
-0.00390625 0.4477509 0.83984375
0.23046875 0.44596466 0.83984375
-0.00390625 0.4465979 0.83203125
-0.04296875 0.46507242 0.89402086
-0.00390625 0.44604093 0.82421875
-0.00390625 0.44648215 0.81640625
-0.16015625 0.52781695 0.96453035
-0.00390625 0.44712692 0.80859375
-0.00390625 0.44857684 0.79296875
0.23046875 0.4474676 0.80859375
-0.01171875 0.45893446 0.75390625
-0.16796875 0.50265872 0.94140625
-0.01953125 0.45848688 0.75390625
-0.17578125 0.47090077 0.73046875
-0.01953125 0.45577917 0.87109375
-0.01953125 0.45271584 0.86328125
-0.01953125 0.45132655 0.85546875
-0.01953125 0.45624965 0.75971067
-0.17489634 0.47306564 0.72305721
-0.01953125 0.44874099 0.84265661
-0.01953125 0.44661593 0.83203125
0.48046875 0.47845775 0.75390625
-0.01953125 0.44552737 0.81640625
0.48046875 0.48027718 0.7454893
-0.021794325 0.449413 0.84765625
-0.02734375 0.44565141 0.83203125
-0.02734375 0.44526428 0.82421875
-0.02734375 0.44650772 0.79296875
-0.03515625 0.45163149 0.86328125
-0.20703125 0.47300646 0.73162729
-0.03515625 0.4565739 0.76049173
-0.03515625 0.44874069 0.85021359
-0.04296875 0.45950088 0.75390625
-0.04296875 0.45440528 0.87109375
-0.04296875 0.45120913 0.86328125
-0.036805462 0.44947803 0.85546875
-0.16751207 0.51182497 0.6519748
-0.04296875 0.45377365 0.76953125
0.33203125 0.4950642 0.72184241
0.85546875 0.58203125 0.69518501
-0.04296875 0.44621861 0.80078125
-0.05078125 0.45420581 0.76953125
-0.05078125 0.44881126 0.85695738
-0.05078125 0.4469237 0.84765625
-0.05078125 0.44519565 0.83203125
-0.05078125 0.44506261 0.81640625
-0.05078125 0.44766819 0.79296875
-0.05859375 0.45703125 0.7620275
-0.057863127 0.45708287 0.76171875
-0.05859375 0.46032044 0.75390625
-0.05859375 0.4534812 0.87109375
-0.05859375 0.45075744 0.86328125
-0.05859375 0.44682866 0.80078125
-0.06640625 0.45703125 0.7635296
-0.06640625 0.4577007 0.76171875
-0.06640625 0.4453719 0.82421875
-0.22265658 0.55078125 0.98046875
-0.07421875 0.45703125 0.76286381
-0.07421875 0.44974798 0.78749579
-0.07421875 0.45264426 0.77734375
-0.07421875 0.44869393 0.850272
0.46484375 0.55078125 0.96734548
-0.07421875 0.44719559 0.83984375
0.46484375 0.53997624 0.91796875
-0.07421875 0.44565484 0.82421875
-0.07421875 0.44672421 0.80859375
-0.07421875 0.44852635 0.79296875
0.48833722 0.53520209 0.67589462
0.48848349 0.54323703 0.23046875
-0.08203125 0.45703125 0.76388705
0.48763913 0.53457493 0.66796875
0.48914808 0.54411584 0.23828125
-0.08203125 0.45762184 0.76171875
-0.08203125 0.45426148 0.87109375
-0.08203125 0.45055124 0.78515625
-0.08203125 0.44632292 0.81640625
0.68359375 0.51331222 0.35546875
-0.08984375 0.45703125 0.76384002
0.80078125 0.57244778 0.69921875
-0.08984375 0.45749477 0.76171875
-0.08984375 0.45442671 0.87109375
-0.08984375 0.45224786 0.86328125
-0.08984375 0.45329434 0.77734375
-0.08984375 0.45587644 0.76953125
-0.08984375 0.44768623 0.83984375
-0.08984375 0.44675407 0.83203125
-0.08984375 0.44624078 0.82421875
-0.08984375 0.44657034 0.81640625
-0.09765625 0.45467955 0.87109375
0.59765625 0.48466593 0.64453125
-0.09765625 0.44705477 0.83203125
-0.09765625 0.44700864 0.81640625
-0.10546875 0.44822484 0.83984375
-0.10546875 0.4490408 0.79934233
-0.11328125 0.4609988 0.75390625
-0.11328125 0.45275095 0.86328125
-0.11328125 0.44989669 0.84765625
-0.08984375 0.44902667 0.84873796
-0.11328125 0.45211583 0.78515625
-0.11328125 0.44774154 0.83203125
-0.08203125 0.44785288 0.80078125
0.61328125 0.48356733 0.70703125
-0.48046875 0.49612588 0.81624401
0.30859375 0.50633293 0.7093721
-0.12109375 0.45703125 0.76884949
-0.12109375 0.45797288 0.76171875
-0.12109375 0.45296368 0.86328125
-0.44921875 0.55000269 0.94982499
0.12109375 0.47543693 0.72265625
0.12109375 0.47256157 0.7301169
0.12109375 0.46430063 0.74511772
-0.25390625 0.47010547 0.76953125
0.11328125 0.49609375 0.70573974
0.11328125 0.49407059 0.70703125
0.11988394 0.4809289 0.71509492
0.11328125 0.47645497 0.72265625
0.11328125 0.46793911 0.73828125
0.10546875 0.49609375 0.70599741
0.10546875 0.47690102 0.72265625
0.10546875 0.47234842 0.72987449
0.09765625 0.48828125 0.71234649
-0.12890625 0.4948068 0.93494719
0.09765625 0.49546942 0.70655775
0.09765625 0.47227281 0.72976214
0.08984375 0.48828125 0.7112636
0.08984375 0.46441036 0.74534315
0.08203125 0.47684914 0.72265625
0.08203125 0.46817714 0.73828125
0.07421875 0.49609375 0.70508581
0.07421875 0.48144338 0.71571672
0.07421875 0.47705346 0.72265625
0.07421875 0.4725565 0.73029006
0.07421875 0.4643577 0.74518579
0.06640625 0.48317418 0.71484375
0.05859375 0.48828125 0.71122664
0.05859375 0.48325476 0.71484375
0.05078125 0.49260217 0.70703125
0.05078125 0.48329997 0.71484375
0.05078125 0.46805423 0.73828125
-0.56640625 0.51171875 0.87359101
0.05078125 0.46445379 0.74533701
0.04296875 0.49222448 0.70703125
-0.55859375 0.52435833 0.83984375
0.04296875 0.48046875 0.71747953
0.04296875 0.46787313 0.73828125
0.04296875 0.46441662 0.74520731
0.45703125 0.48828125 0.74039394
0.03515625 0.49609375 0.70490676
0.03515625 0.48828125 0.71062911
0.03515625 0.49280086 0.70703125
0.18359375 0.50478619 0.69997823
-0.12109375 0.45794159 0.87671351
0.03515625 0.48155552 0.71574903
0.03515625 0.47667292 0.72265625
0.03515625 0.46771216 0.73828125
0.03515625 0.47232336 0.72992003
0.02734375 0.54420036 0.98097533
0.03515625 0.46430004 0.74502462
0.02734375 0.49609375 0.70472646
0.02734375 0.49158987 0.70703125
0.02734375 0.48046875 0.71687156
0.02734375 0.4828769 0.71484375
0.46171314 0.47313166 0.80859375
0.02734375 0.47238612 0.73006201
0.54296875 0.49854547 0.68359375
0.5429666 0.49609274 1.1054456
0.01953125 0.49609375 0.70459253
0.01953125 0.49240062 0.70703125
0.01953125 0.47236601 0.7299971
0.55078125 0.50250852 0.23046875
0.01953125 0.46423882 0.74496353
-0.30078125 0.47055525 0.79296875
0.01171875 0.48828125 0.71018457
0.01171875 0.46425161 0.74498677
0.00390625 0.48828125 0.7098403
0.00390625 0.49155894 0.70703125
0.49610811 0.53516734 0.33219624
0.41126862 0.53503752 0.69132096
0.67653537 0.51133394 0.22265625
0.50359404 0.52710789 0.37109375
0.5037297 0.52720588 0.36328125
-0.06640625 0.61328125 0.65607721
0.49111199 0.54296875 0.28515625
-0.51953125 0.50125545 0.74609375
0.48828125 0.54633677 0.27734375
0.48866761 0.53560865 1.1835938
0.49195313 0.54296875 0.27734375
0.48828125 0.54609329 0.26953125
0.48828125 0.53210247 1.1523438
0.49140006 0.54296875 0.26953125
0.49198303 0.54296875 0.26171875
0.49060199 0.54296875 0.25390625
0.49487934 0.53410864 0.37109375
0.03515625 0.5359301 0.9747166
0.49583128 0.53493321 0.33984375
0.48095423 0.55139387 0.31640625
0.48345327 0.55078125 0.29296875
0.48046875 0.55543011 0.27734375
0.48046875 0.55628926 0.26953125
0.48046875 0.55668837 0.25390625
0.48827478 0.54296231 0.32416391
-0.03515625 0.49609375 0.7028783
0.47299516 0.56640625 0.26953125
0.47434893 0.56640625 0.25390625
0.47265625 0.55859375 0.36063367
0.47265625 0.55996019 0.34765625
-0.065243468 0.47253451 0.91032118
-0.07421875 0.44756925 0.80078125
0.58203125 0.4510698 0.75390625
0.47265625 0.56096357 0.33984375
-0.65234375 0.56999356 0.94140625
0.47564909 0.55859375 0.30859375
-0.06640625 0.44565487 0.81640625
0.47731212 0.55859375 0.28515625
0.47843656 0.55859375 0.27734375
0.47879416 0.55859375 0.26171875
0.46484375 0.58342701 0.27734375
0.46527547 0.58203125 0.27734375
0.44547856 0.62890625 0.53515625
0.46484375 0.58496159 0.26171875
0.46630672 0.58203125 0.26171875
0.05078125 0.55859375 0.66994166
0.44751573 0.62890625 0.51953125
0.46496978 0.57449162 0.34765625
0.30859375 0.56854647 0.98046875
0.46570864 0.57421875 0.32421875
-0.29296875 0.60546875 0.65746361
-0.03515625 0.44504648 0.80859375
0.46594054 0.57421875 0.31640625
0.46751541 0.56640625 1.2304688
0.56640625 0.49838558 0.20703125
0.4680416 0.57421875 0.28515625
0.56640625 0.50045443 0.28515625
0.56640625 0.49924776 0.24609375
0.46484375 0.57299179 0.37109375
0.46764091 0.56640625 0.37109375
-0.02734375 0.45882574 0.75390625
0.46484375 0.57350129 0.36328125
0.46778941 0.56640625 0.36328125
0.46759129 0.56640625 0.35546875
0.46783584 0.56640625 0.34765625
0.468593 0.56640625 0.33984375
0.62109375 0.4970566 0.26171875
0.47072044 0.56640625 0.30078125
0.4510529 0.60546875 0.47265625
0.47097236 0.56640625 0.29296875
0.47185248 0.56640625 0.28515625
0.44927192 0.59802496 1.0037856
0.45895499 0.58984375 0.35546875
0.45926493 0.58984375 0.34765625
-0.54296875 0.50469679 0.80078125
0.45966816 0.58984375 0.33203125
0.46288666 0.58984375 0.27734375
0.46271783 0.58984375 0.26171875
0.46114519 0.58203125 0.36328125
0.46484375 0.57271701 1.2460938
0.46162701 0.58203125 0.34765625
0.46147889 0.58203125 0.33984375
0.46484375 0.56932878 1.2226562
0.46271399 0.58203125 0.32421875
-0.34938353 0.5114246 0.72241855
0.46291599 0.58203125 0.31640625
0.46484375 0.57008475 1.2304688
-0.10546875 0.45085734 0.85546875
0.46412277 0.57421875 0.37109375
0.48920956 0.47297168 0.80078125
0.46450874 0.57421875 0.36328125
-0.50390625 0.50783432 0.88671875
0.46483812 0.57420081 0.35531607
0.48970878 0.47306895 0.77734375
0.45244277 0.62109375 0.37109375
0.08203125 0.51953125 0.95904547
0.45287681 0.62109375 0.35546875
0.45330313 0.62109375 0.33984375
0.45397368 0.62109375 0.30078125
0.45402539 0.62109375 0.29296875
0.45496961 0.62109375 0.27734375
0.45573428 0.62109375 0.25390625
0.45376086 0.61328125 0.36328125
0.08203125 0.52734375 0.96600705
0.45424646 0.61328125 0.33203125
0.45443794 0.61328125 0.32421875
0.4541826 0.61328125 0.31640625
0.45457551 0.61328125 0.30078125
0.45571086 0.60546875 0.30078125
0.45681012 0.59710366 0.33203125
-0.17578125 0.47243696 0.9026857
0.63671875 0.49908045 0.26171875
0.49609375 0.49180657 0.90234375
0.39453125 0.52734375 0.69665492
0.48828125 0.49071357 0.89453125
0.48828125 0.48828125 0.88845271
0.23828125 0.59009194 0.66025949
0.48828125 0.48551109 0.87890625
-0.05859375 0.55859375 0.66976225
0.48046875 0.48486707 0.87890625
0.47265625 0.50259137 0.91796875
0.35573637 0.51949716 0.9492439
-0.50406182 0.51169944 0.89456242
0.46484375 0.48259363 0.87890625
0.45703125 0.48567218 0.89453125
0.45724395 0.48040995 0.87916267
0.44921875 0.50002348 0.91796875
0.44921875 0.48964491 0.90234375
-0.45703125 0.62109375 0.65892798
0.44921875 0.48086029 0.88492388
-0.27844879 0.62109375 0.65286815
0.44921875 0.47930634 0.87890625
0.44140625 0.49911353 0.91796875
0.44140625 0.4839097 0.89453125
0.68392938 0.51155484 0.46484375
0.44140625 0.47711867 0.87890625
0.43359375 0.49824595 0.91796875
0.43359375 0.48780239 0.90306354
0.43359375 0.48046875 0.88955545
0.43359375 0.47908461 0.88671875
0.42578125 0.49745628 0.91796875
0.48828125 0.54055214 0.37109375
0.41796875 0.47734272 0.88671875
0.41015625 0.4956826 0.91846889
0.41174048 0.48025712 0.89453125
-0.069949836 0.55859375 0.98828125
0.47108132 0.55859375 1.1914062
0.40234375 0.48362085 0.90234375
0.40234375 0.48046875 0.8969273
0.40234375 0.4790186 0.89453125
0.40234375 0.47545621 0.88671875
0.39453125 0.49937934 0.92578125
0.39453125 0.49461648 0.91978544
-0.33141473 0.58373374 0.9876855
0.3983838 0.48828125 0.91015625
0.39453125 0.48800382 0.91054463
0.39453125 0.48246741 0.90234375
0.39453125 0.48046875 0.89882296
0.39453125 0.47798184 0.89453125
0.38671875 0.48152238 0.90234375
0.38671875 0.48046875 0.90045911
0.38671875 0.47040665 0.87890625
0.37890625 0.49138582 0.91796875
0.37894788 0.48046327 0.90235186
0.37881514 0.47266862 0.88668674
-0.22265625 0.55859375 0.98520792
0.37890625 0.46958473 0.87890625
0.44385716 0.62890625 1.0351562
0.10546875 0.58224517 0.66021889
-0.12979561 0.54296875 0.93359375
0.58203125 0.49679706 0.29296875
0.46371451 0.49626857 0.90989572
0.45703125 0.60157675 0.29296875
0.05859375 0.49609375 0.70594782
0.66742104 0.50408554 0.49609375
0.66520619 0.50490999 0.45703125
-0.01953125 0.45287451 0.76953125
0.62109375 0.48441973 0.70703125
0.62109375 0.47898498 0.71484375
0.62109375 0.46903148 0.73046875
-0.4832958 0.49561107 0.80078125
0.61328125 0.48828125 0.69894999
0.61406112 0.49603438 0.23875061
0.61328125 0.49055737 0.65234375
0.43359375 0.52798897 0.94863182
-0.60911876 0.57421875 0.67578125
0.17578125 0.48805919 0.93383449
0.60546875 0.49643478 0.25390625
0.60733646 0.47253433 0.72250545
0.82421875 0.59311247 0.68359375
0.60546875 0.45927018 0.73828125
-0.60546875 0.53515625 0.83545542
-0.22265625 0.45863658 0.84765625
0.46304744 0.58984375 0.26953125
0.59765625 0.48701802 0.62890625
0.12109375 0.52867067 0.97312772
-0.57421875 0.56411523 0.69921875
-0.03515625 0.45529938 0.87109375
0.58984375 0.47232261 0.72209191
0.34765625 0.4600454 0.78515625
0.58984375 0.45408037 0.74609375
0.58997065 0.4570176 0.73823178
0.58203125 0.48380771 0.70703125
0.69921875 0.5334782 0.40234375
0.47661453 0.55078125 1.1757812
0.58203125 0.47189239 0.72152293
0.69804651 0.52039343 0.41796875
0.57421875 0.4919543 0.69140625
0.57421875 0.48605493 1.1132812
0.57421875 0.49728358 0.23046875
0.73212796 0.54296875 0.50390625
0.57421875 0.48828125 0.66501296
0.48047152 0.54297203 0.51188594
0.57421875 0.48046875 0.71265233
0.57421875 0.48429647 0.65234375
0.57421875 0.47265625 0.71911067
0.56640625 0.48828125 0.70378131
0.55859375 0.49049097 0.67578125
0.55859375 0.48046875 0.71217614
-0.58984375 0.5084163 0.69921875
0.55859375 0.48634279 0.65234375
0.55859375 0.47551754 0.71484375
0.34765625 0.47887239 0.90479845
0.55859375 0.46042386 0.73046875
0.55859375 0.45456415 0.74609375
-0.22265625 0.51953125 0.95171022
0.59765625 0.49614722 0.25345761
0.55078125 0.49397424 0.68359375
0.69140625 0.47619835 0.76171875
0.55095351 0.4805488 0.71491241
-0.37890625 0.48281345 0.77734375
0.55078125 0.48649624 0.66796875
0.55078125 0.49337152 1.1054688
0.55078125 0.48593923 0.66015625
0.55078125 0.49297014 1.1132812
0.55879045 0.47285002 0.72284925
0.55078125 0.46939588 0.72265625
0.55078125 0.4580602 0.73828125
0.55078125 0.46348888 0.72913212
0.55078125 0.45657858 0.74413526
0.54296875 0.49175724 0.62890625
0.54296875 0.48719218 0.67578125
0.35546875 0.46097511 0.78515625
0.41015625 0.55078125 0.96722364
0.54296875 0.47265625 0.71852529
0.53515625 0.49609375 0.70161194
0.01171875 0.52286643 0.98046875
0.53515625 0.49609375 0.68475401
0.53515625 0.48952758 0.67578125
0.53515625 0.49046674 0.66796875
-0.13969865 0.47265625 0.71484375
0.53515625 0.49138471 0.64453125
0.53515625 0.49264371 0.63671875
-0.60432613 0.59009153 0.68376559
0.53515625 0.46538708 0.73120224
0.5348078 0.45691964 0.75334197
0.53515625 0.45882869 0.74609375
-0.62109375 0.51281279 0.78515625
0.53515625 0.46134534 0.73828125
-0.62109375 0.51171875 0.78101772
0.52941984 0.49609375 0.69140625
0.09765625 0.45505157 0.87890625
0.52875644 0.48828125 0.69921875
-0.19140625 0.45832399 0.78515625
0.53486335 0.48817989 0.68273824
0.52734375 0.49293175 0.67578125
0.52734375 0.51229841 0.20703125
0.53499961 0.48821157 0.66006529
0.52734375 0.49281245 0.65234375
0.52734375 0.49379435 0.64453125
0.5273484 0.46484649 0.73828816
0.52734375 0.46233153 0.74609375
0.51953125 0.48828125 0.70547611
0.51953125 0.493653 0.66015625
0.05859375 0.50488019 0.94829547
0.51171875 0.49922869 0.68359375
0.51813847 0.49529219 0.68359375
0.41015625 0.57421875 0.66613019
-0.50387907 0.57422125 0.68359566
0.51171875 0.46878561 0.74609375
-0.51171875 0.52649307 0.72933799
0.50792485 0.49609375 0.71484375
0.07421875 0.53515625 0.97153157
0.50974584 0.4941313 0.70703125
0.73399168 0.54296875 0.67578125
-0.54296875 0.50390625 0.6866439
0.23046875 0.62890625 0.65431106
-0.49609375 0.52734375 0.84463042
0.21484375 0.62890625 0.65516382
-0.05859375 0.49609375 0.93729681
-0.10546875 0.60620159 0.66030818
0.45172232 0.63671875 0.30859375
0.45391706 0.59765625 1.2304688
0.55859375 0.50200629 0.26171875
0.55859375 0.46484375 0.72401708
0.18359375 0.62890625 0.65542436
0.17578125 0.62890625 0.65478641
0.16796875 0.62890625 0.65559423
0.37890625 0.55723792 0.67495
0.13671875 0.62890625 0.6551125
-0.13671875 0.4491443 0.81569183
0.12890625 0.62890625 0.65552056
0.48013204 0.54264081 0.52734375
0.4803037 0.54277343 0.53515625
-0.51953125 0.55859375 0.69780827
0.48059371 0.54315436 0.98828125
0.48604718 0.53515625 0.55078125
0.48047489 0.54297745 1.0040805
0.57421875 0.47758719 0.71484375
0.4837983 0.54296875 1.2773438
0.06640625 0.4940424 0.70703125
0.47316808 0.55143768 0.51171875
0.70305777 0.54296875 0.47265625
0.47748852 0.55859375 1.2617188
-0.30859375 0.59907955 1.0039062
0.4860298 0.53515625 0.54296875
0.48063299 0.54320759 0.98046875
0.06640625 0.47240552 0.72993547
0.47265625 0.50394076 0.86303884
0.73046875 0.54067874 0.66796875
0.47265625 0.51697272 0.89453125
0.73046875 0.54013163 0.63671875
-0.55047911 0.52746946 0.69956928
0.73046875 0.5410924 0.64453125
0.72265625 0.54319245 0.47175616
0.4875308 0.5341506 0.52734375
-0.16796875 0.53739625 0.97265625
-0.56640625 0.57248682 0.69140625
-0.01171875 0.52734375 0.68526292
0.48701724 0.53515625 0.66015625
0.48808742 0.54269254 0.21484375
0.51171875 0.47322059 0.73142284
-0.17578125 0.55859375 0.67096865
-0.30078125 0.52807194 0.94855136
0.42578125 0.47505352 0.87890625
0.46898583 0.56640625 1.2773438
0.51953125 0.48155442 0.7166549
0.56640625 0.49040702 0.60546875
0.47190228 0.56640625 1.2539062
0.46949676 0.56640625 1.2382812
-0.15234375 0.45254952 0.85546875
0.19140625 0.52982074 0.68359375
0.19087732 0.44920826 0.86330938
-0.65910643 0.63671875 0.57400554
-0.66015625 0.63929725 0.58203125
-0.24609375 0.49429157 0.72175837
0.50390625 0.50271261 0.66015625
0.13671875 0.44954017 0.87001914
0.71484375 0.53090459 0.24609375
-0.27869391 0.47248316 0.76953125
0.12109375 0.62134314 0.65206653
0.12109375 0.54432261 0.67647773
0.12109375 0.53515625 0.68160582
0.12109375 0.53165835 0.68359375
-0.12109375 0.46847728 0.73046875
0.12009669 0.61315191 0.65227991
0.11328125 0.60546875 0.65648329
-0.12109375 0.45693764 0.76953125
0.58984375 0.46486002 0.91012633
0.11328125 0.54296875 0.67740738
0.11328125 0.52734375 0.68616879
0.11328125 0.50508893 0.70010573
0.10546875 0.62109375 0.65281588
0.48828125 0.5320732 0.69140625
0.48786181 0.54251486 0.22265625
0.11233864 0.6199919 0.65221792
0.10546875 0.61328125 0.65251076
0.10546875 0.59765625 0.65720338
0.10546875 0.56428742 0.66712105
0.10546875 0.54296875 0.6776076
0.16796875 0.50228131 0.94921875
0.10546875 0.51939481 0.69131905
0.16015625 0.55382371 0.99609375
0.09765625 0.55859375 0.66979104
0.09765625 0.5486173 0.67470181
0.09765625 0.52734375 0.68661153
0.09765625 0.53371453 0.68276238
0.09765625 0.51926023 0.6912328
0.08984375 0.61328125 0.65388942
0.25390625 0.44644424 0.82421875
0.08984375 0.59765625 0.65701759
-0.42578125 0.52231103 0.92578125
0.096678451 0.58233416 0.66020268
0.52734375 0.50565553 0.54296875
0.08984375 0.55859375 0.66934228
0.08984375 0.563829 0.6669746
0.08984375 0.54296875 0.67742592
0.08984375 0.5483101 0.67449224
-0.27734375 0.47738811 0.88671875
0.08984375 0.52734375 0.68646759
0.08984375 0.53348905 0.68262064
0.08984375 0.51938123 0.69130844
-0.40894917 0.58984375 0.66796875
0.08203125 0.62109375 0.65315926
0.08203125 0.61328125 0.65327501
0.08203125 0.59765625 0.65764123
0.08203125 0.58984375 0.65844202
0.08203125 0.58156466 0.65998292
0.08203125 0.55078125 0.67313313
0.45655581 0.59629893 0.35546875
-0.55859375 0.53515625 0.63565528
0.08203125 0.51171875 0.69586122
0.08203125 0.50523478 0.70036334
0.59765625 0.44706023 0.76953125
0.44208995 0.48037797 0.8869127
0.07421875 0.55859375 0.66971338
0.07421875 0.56438637 0.66721433
0.07421875 0.54843438 0.6745922
0.07421875 0.53366089 0.6827116
0.07421875 0.51919413 0.69118696
0.06640625 0.59765625 0.65709251
0.06640625 0.58984375 0.65867424
0.06640625 0.54866582 0.67469388
0.47265625 0.51415044 0.83984375
0.06640625 0.52734375 0.68671083
0.06640625 0.51171875 0.69637066
0.06640625 0.50545633 0.70038015
0.10546875 0.51171875 0.6960271
-0.34038371 0.62109375 0.65251166
0.48046875 0.49431962 0.9049232
0.05859375 0.54859668 0.67471111
0.05078125 0.54841161 0.67458034
0.05078125 0.52734375 0.68643653
0.05078125 0.51171875 0.69615155
0.04296875 0.62109375 0.65364504
0.48106074 0.54362267 0.43359375
0.04296875 0.60546875 0.65771085
0.04296875 0.59765625 0.65805823
0.04296875 0.58984375 0.65943283
0.04296875 0.58305061 0.66027141
0.08203125 0.52734375 0.68621409
0.04296875 0.55859375 0.66935438
0.45473999 0.58203125 1.0117188
0.04296875 0.54829293 0.67463404
0.04296875 0.52734375 0.68609434
0.04296875 0.51171875 0.69561607
0.37109375 0.46484375 0.76898909
0.03515625 0.61328125 0.65457708
0.03515625 0.59765625 0.65804136
0.28515625 0.46539998 0.89324826
0.03515625 0.53159332 0.68359375
0.03515625 0.51171875 0.69565469
0.03515625 0.50503135 0.70008123
0.45703125 0.57421875 0.61941439
0.456099 0.58203125 1.0898438
0.02734375 0.61328125 0.65319991
0.04296875 0.57421875 0.66336536
0.02734375 0.59765625 0.65734041
0.41015625 0.59765625 0.98428643
0.02734375 0.56511527 0.66749632
0.28515625 0.45460734 0.78515625
0.02734375 0.53352785 0.68261731
0.02734375 0.51171875 0.69567943
0.01953125 0.58461463 0.66055262
0.01953125 0.55859375 0.66982758
0.01953125 0.55078125 0.67361832
-0.18359454 0.60546875 0.66015625
0.01953125 0.54390228 0.67615688
0.4528586 0.60546875 0.41796875
0.01953125 0.53515625 0.6814062
0.01953125 0.53144622 0.68359375
0.01953125 0.51171875 0.69546181
0.01171875 0.59765625 0.65788335
0.01171875 0.58984375 0.65904623
0.00390625 0.60546875 0.658562
-0.63671875 0.63007939 0.58203125
0.00390625 0.58203125 0.66108906
0.00390625 0.53515625 0.68005377
0.00390625 0.52830106 0.68422717
0.00390625 0.51171875 0.69424462
-0.51792705 0.5130102 0.69140625
0.00390625 0.51587594 0.69140625
0.51495457 0.51953125 0.34765625
0.52026409 0.49510252 0.69921875
-0.54296875 0.52734375 0.83747977
-0.13671875 0.44981757 0.83984375
0.49609375 0.53176713 0.39453125
0.49609375 0.53213519 0.38671875
0.48851746 0.53545171 0.45703125
-0.34765625 0.4825094 0.75390625
0.48882568 0.53572166 0.42578125
0.49599618 0.52725935 0.45703125
0.21641278 0.48020065 0.7223832
0.48046875 0.5471282 0.39453125
0.48764208 0.53458577 0.49609375
0.48808882 0.53494233 0.48046875
0.48819673 0.53506321 0.47124991
0.47340712 0.55163974 0.49609375
-0.04296875 0.54296875 0.97802597
0.47447413 0.55078125 0.47265625
-0.26953125 0.55859375 0.98458689
0.47477859 0.55078125 0.45703125
0.70216185 0.54296875 0.30078125
0.47528493 0.55078125 0.44921875
0.47630885 0.55078125 0.41796875
0.47265625 0.5559721 0.41015625
0.47808027 0.55078125 0.38671875
0.47273269 0.56648237 1.2471825
0.46484375 0.56640625 0.42624399
0.46485421 0.56643695 0.42578125
0.46593836 0.56640625 0.41796875
0.44871324 0.61893171 1.2695312
0.46484375 0.56893086 0.40234375
-0.50390625 0.54191828 0.93473184
0.46484375 0.56991392 0.39453125
0.73312819 0.54296875 0.65234375
0.46608198 0.56640625 0.39453125
0.46636209 0.56640625 0.38671875
0.46825013 0.55859375 0.48046875
0.46900669 0.55859375 0.45703125
0.46927243 0.55859375 0.44921875
0.47037157 0.55859375 0.41796875
0.47079343 0.55859375 0.40234375
-0.55859375 0.52798188 0.64547443
0.47105467 0.55859375 0.39453125
0.4713169 0.55859375 0.38671875
-0.60981631 0.54296875 0.91796875
0.47175574 0.55859375 0.37890625
0.45735395 0.59094763 0.40234375
0.01171875 0.53515625 0.68020952
0.45755357 0.58318722 0.49609375
0.45852569 0.58203125 0.48828125
0.45703125 0.58578783 0.48046875
0.45703125 0.58625859 0.47265625
0.08203125 0.4524866 0.87109375
0.45918891 0.58203125 0.45703125
0.08203125 0.44954586 0.86171603
0.45865998 0.58203125 0.44921875
0.4589484 0.58203125 0.44140625
0.45903379 0.58203125 0.43359375
0.45940492 0.58203125 0.42578125
0.45977753 0.58203125 0.41015625
-0.01171875 0.51953125 0.95945293
-0.10546875 0.45167243 0.78515625
0.4600572 0.57421875 0.49609375
0.46176389 0.57421875 0.43359375
0.49005044 0.47331589 0.82421875
0.46242523 0.57421875 0.41796875
0.46306252 0.57421875 0.39453125
0.48913252 0.47292468 0.79296875
0.48923951 0.47295436 0.78515625
0.46372363 0.57421875 0.37890625
0.48990747 0.47324815 0.80859375
0.46402439 0.56484365 0.48828125
0.46412885 0.56504083 0.48046875
0.464232 0.56524992 0.47265625
0.44923404 0.62117445 0.48828125
0.44893885 0.62689239 0.46484375
-0.68365586 0.6053592 0.95711893
-0.02734375 0.45303252 0.76953125
0.45030785 0.62109375 0.44921875
0.45083985 0.62109375 0.43359375
0.48828125 0.53515625 1.1730194
0.4509716 0.62109375 0.42578125
0.45113114 0.62109375 0.41796875
0.45152038 0.62109375 0.40234375
0.45177382 0.62109375 0.39453125
0.45173213 0.61328125 0.46484375
0.45165423 0.61328125 0.45703125
0.45182934 0.61328125 0.44921875
0.45225403 0.61328125 0.43359375
0.05859375 0.48046875 0.71714497
0.45238924 0.61328125 0.42578125
0.45212901 0.61328125 0.41796875
0.45249304 0.61328125 0.41015625
-0.59765625 0.50348759 0.75390625
0.45290306 0.61328125 0.37890625
-0.18299739 0.50393313 0.94137841
0.45145217 0.60546875 0.48046875
0.45262492 0.59765625 0.49609375
0.45352256 0.59765625 0.46484375
0.4537839 0.59765625 0.45703125
0.08203125 0.54296875 0.97889066
0.46014634 0.59765625 0.27734375
-0.03515625 0.46630615 0.73828125
0.30859375 0.62062639 0.65214092
0.45406759 0.59765625 0.44921875
0.45467228 0.59765625 0.42578125
-0.18226883 0.5354194 0.68378133
0.45488268 0.59765625 0.41796875
0.45553976 0.59765625 0.39453125
0.45857358 0.59765625 0.29296875
0.4548896 0.58984375 0.48828125
0.45527852 0.58984375 0.48046875
0.45674849 0.58892882 0.44140625
-0.59765625 0.51171875 0.69533604
0.45697072 0.58967608 0.42399892
0.37086734 0.48061624 0.73835742
0.35546875 0.47059622 0.74609375
0.34765625 0.49617738 0.72277284
0.47210714 0.55859375 0.37109375
0.34765625 0.48845923 0.73076016
0.55859375 0.49753469 0.41796875
0.55859375 0.46528396 0.90234375
0.34765625 0.48046875 0.73422557
0.55859375 0.49991667 0.20703125
0.33984375 0.47997764 0.73762399
-0.51171875 0.52779835 0.91731811
0.58203125 0.48901623 0.58984375
0.47301605 0.55133796 1.1445312
0.33054039 0.48843557 0.73068827
0.45949715 0.58203125 0.41796875
0.31640625 0.46475375 0.75358254
0.31640625 0.46870083 0.74609375
0.30859375 0.49609375 0.71953809
-0.05859375 0.44746488 0.84765625
0.30859375 0.48658472 0.72942752
0.30859375 0.46741986 0.74609375
0.30078125 0.48828125 0.72818214
0.37890625 0.57421875 0.9770928
0.30078125 0.49243727 0.72265625
0.09765625 0.51736963 0.97265625
0.29296875 0.49609375 0.71825576
0.29296875 0.49929667 0.71484375
0.28515625 0.4984172 0.71484375
0.28515625 0.48828125 0.72654468
-0.08984375 0.45727226 0.8782866
0.28515625 0.4801313 0.73010051
0.28515625 0.4640837 0.75234419
0.02734375 0.4489733 0.79179031
0.27734375 0.49062955 0.72265625
0.27815178 0.48063481 0.73071063
0.27734375 0.47361013 0.73901695
0.26953125 0.49609375 0.71652973
0.26953125 0.46763924 0.74609375
0.30078125 0.45297042 0.84765625
0.26171875 0.48828125 0.72459471
0.26115689 0.49618745 0.714957
0.25390625 0.46776423 0.74609375
-0.06640625 0.4547292 0.76953125
-0.06640625 0.48156551 0.71602201
0.06640625 0.48990363 0.93359375
-0.00390625 0.54679006 0.98046875
-0.00390625 0.53609037 0.97265625
-0.00390625 0.52734375 0.97805899
-0.01171875 0.52554399 0.96484375
0.46484062 0.57421046 1.2929115
-0.51171875 0.5390116 0.71484375
-0.01953125 0.54533184 0.98828125
-0.01953125 0.54826009 0.98046875
-0.01953125 0.54296875 0.97792256
-0.01953125 0.53690159 0.97265625
-0.01953125 0.52590281 0.96484375
-0.01953125 0.51417822 0.95505095
-0.02734375 0.53562558 0.97234392
-0.02734375 0.52639544 0.96484375
-0.02734375 0.51953125 0.95876104
-0.02734375 0.51428318 0.95472145
0.08203125 0.54431087 0.6765933
0.09765625 0.52734375 0.98360294
-0.03515625 0.54296875 0.97870773
-0.03515625 0.53722876 0.97265625
-0.03515625 0.52655315 0.96484375
-0.03515625 0.50593376 0.9473424
-0.04296875 0.53515625 0.97160333
-0.51953125 0.57621557 0.68359375
-0.04296875 0.51953125 0.9589259
-0.05078125 0.54296875 0.97733885
-0.05859375 0.54296875 0.97822785
-0.05859375 0.51953125 0.9589991
-0.05859375 0.51412457 0.95492536
0.41015625 0.50862503 0.93359375
-0.06640625 0.54759622 0.98046875
0.4744713 0.55859375 1.2226562
-0.06640625 0.50591934 0.94738233
0.40234375 0.50049275 0.92578125
-0.27734375 0.4721671 0.8724373
-0.07421875 0.55078125 0.98257083
0.53974617 0.49609375 1.2382812
0.60546875 0.49565884 0.32421875
-0.07421875 0.53515625 0.97114182
-0.07421875 0.52734375 0.96577454
0.05859375 0.4627983 0.89453125
-0.07421875 0.52605224 0.96484375
0.35546875 0.63671875 0.64653236
-0.08203125 0.54296875 0.97710568
-0.08203125 0.53515625 0.97199553
-0.48046875 0.56640625 0.95995438
0.36328125 0.49609375 0.72470826
-0.08203125 0.52734375 0.96638781
-0.38671875 0.48607725 0.87109375
-0.08203125 0.51953125 0.95977277
0.52584177 0.49552235 0.63671875
-0.081973277 0.55859375 0.98828125
-0.08984375 0.55859375 0.98506963
-0.37890625 0.51583469 0.92578125
0.12109375 0.52734375 0.98330045
0.04296875 0.47245049 0.73013002
0.60546875 0.45994538 0.90234375
-0.08984375 0.51953125 0.96052349
-0.091685504 0.55753434 0.98828125
-0.09765625 0.51359147 0.95537299
-0.30078125 0.5793038 0.99609375
0.56640625 0.44746795 0.83984375
-0.10546875 0.53444189 0.97330481
-0.16796875 0.45198029 0.80859375
-0.10546875 0.52193731 0.96263403
-0.10546875 0.51379234 0.95509607
-0.11328125 0.54296875 0.97892094
-0.11328125 0.52734375 0.96657246
-0.11328125 0.51418763 0.9547528
0.54296875 0.49411491 1.1757812
0.54296875 0.50735116 0.26953125
-0.12109375 0.56640625 0.99200654
-0.12018189 0.53531325 0.97250509
0.55078125 0.50300926 0.24609375
-0.12053616 0.54262584 0.94185328
-0.51953125 0.60464138 0.6674993
0.48407546 0.55078125 0.26171875
0.26171419 0.44921917 0.84765255
-0.30078125 0.51220095 0.93304753
-0.19921875 0.62890625 0.65513772
-0.05859375 0.44550347 0.81640625
-0.16796875 0.52217126 0.69140625
0.48828125 0.51171875 0.85251063
-0.29277918 0.62908703 0.65219802
0.45703214 0.58984709 1.238305
-0.22265625 0.63184863 0.65234375
-0.27734375 0.51171875 0.93589848
-0.05859375 0.44552156 0.83203125
-0.23046875 0.62890625 0.65436131
-0.27734375 0.51742285 0.94140625
-0.13671875 0.62109375 0.65284151
0.24609375 0.45756045 0.77111679
0.24609375 0.46038398 0.76171875
0.24609375 0.45548737 0.77734375
0.24609375 0.44769475 0.84765625
0.24609375 0.44701895 0.83984375
0.24609375 0.44626659 0.83203125
0.23828125 0.45036656 0.79296875
0.23046875 0.4499757 0.79296875
0.23046875 0.45498967 0.77734375
-0.16015625 0.4531374 0.85546875
0.23046875 0.44749355 0.85546875
0.23046875 0.44515365 0.82421875
0.23046875 0.44898963 0.79930949
0.22265625 0.45928025 0.76171875
0.22265625 0.44697297 0.85546875
0.51953125 0.45814449 0.80078125
-0.26171875 0.62890625 0.65444946
0.22265625 0.4451727 0.82421875
0.51953125 0.46039987 0.83203125
0.22265625 0.4460094 0.81640625
0.72265625 0.53972989 0.37890625
0.51953125 0.46071213 0.83984375
0.21484375 0.46192777 0.75390625
0.21484375 0.44508752 0.83203125
0.21484375 0.44480669 0.82421875
0.73487782 0.54296875 0.69921875
0.21484375 0.44559044 0.81640625
-0.11328125 0.48046875 0.71299654
0.21484375 0.44662827 0.80859375
0.20703125 0.45703125 0.76724255
0.20703125 0.44764897 0.85546875
0.20703125 0.44559401 0.83984375
0.23828125 0.62890625 0.6544016
0.20703125 0.44482753 0.83203125
0.20703125 0.4444215 0.82421875
-0.16796875 0.49677598 0.69921875
0.20703125 0.44629574 0.80859375
0.19921875 0.46136895 0.75390625
0.19921875 0.45177823 0.87109375
0.19921875 0.44971588 0.78711075
0.19921875 0.44747365 0.85546875
0.19921875 0.44550169 0.83984375
0.19921875 0.44699177 0.80078125
0.19140625 0.45195782 0.87109375
0.19257964 0.44921875 0.86328125
0.47265625 0.48616737 0.88671875
0.18359375 0.45207348 0.87109375
0.62109375 0.47002661 0.91796875
0.66918689 0.50390625 0.67578125
0.18359375 0.454963 0.76953125
0.61328125 0.49058503 0.66796875
0.18359375 0.44612354 0.84765625
0.17578125 0.45162195 0.87109375
0.18304266 0.44925874 0.86311263
0.47444648 0.55859375 0.32421875
0.1829191 0.44925296 0.78529024
0.17578125 0.44398513 0.81640625
0.17578125 0.44471082 0.80859375
0.17369165 0.4571228 0.76171875
0.45193383 0.60546875 1.2460938
0.16796875 0.45384914 0.76953125
0.16796875 0.44457614 0.83984375
-0.30859375 0.50014776 0.91796875
0.68591499 0.51171875 0.68359375
0.16796875 0.44352925 0.83203125
0.6839599 0.51154709 0.65234375
0.16796875 0.4445256 0.80859375
-0.13671875 0.50113386 0.94140625
0.68684769 0.51171875 0.69140625
0.16796875 0.44537991 0.80078125
0.6856122 0.51171875 0.66796875
0.16796875 0.44655409 0.79296875
0.16796875 0.44843659 0.78515625
0.67578125 0.50971228 0.37890625
-0.28515625 0.5455302 0.97265625
-0.31640625 0.49609375 0.73520851
0.09765625 0.5053876 0.70042419
0.16015625 0.44506904 0.80078125
0.15234375 0.44583327 0.79296875
0.15234375 0.44768193 0.78515625
0.37109375 0.47163597 0.88671875
0.14453125 0.44639903 0.85546875
0.48092324 0.54342192 0.47265625
-0.05859375 0.50477839 0.69995749
0.14453125 0.44442552 0.83984375
-0.26953125 0.50930172 0.71484375
0.14453125 0.44326389 0.83203125
0.86328125 0.60546875 0.6793707
0.14453125 0.44252437 0.82421875
0.05859375 0.59765625 0.65685081
0.13671875 0.45820466 0.75390625
0.13671875 0.44933185 0.77769154
0.13671875 0.45592996 0.75910473
0.28515625 0.45207217 0.85546875
0.13671875 0.44609749 0.85546875
0.13671875 0.44408157 0.83984375
0.13671875 0.44221085 0.82421875
0.12890625 0.45651236 0.76056248
0.12890625 0.44249162 0.81640625
0.12890625 0.44394147 0.80078125
0.12890625 0.44743377 0.78515625
0.04296875 0.5136084 0.95531362
0.52734375 0.458985 0.84765625
0.83114028 0.55879229 0.71484375
-0.11733673 0.50390625 0.69921875
0.27734375 0.45564759 0.87109375
-0.11121755 0.48685488 0.70703125
0.56640625 0.49123797 0.69921875
0.46149352 0.57421875 0.44140625
0.48828125 0.47552243 0.83984375
0.56640625 0.48669234 1.1679688
0.59765625 0.48850513 0.65967506
0.42578125 0.62890625 0.64647996
0.23828125 0.45275494 0.78515625
0.093255244 0.54296875 0.99609375
0.08984375 0.44466349 0.82421875
-0.04296875 0.44482905 0.83203125
0.46761134 0.57421875 0.29296875
0.46621373 0.56640625 1.1992188
0.56640625 0.4988713 0.23046875
0.06640625 0.62109375 0.65269578
0.71335459 0.52869922 0.44140625
-0.31640625 0.4869141 0.73046875
-0.30078125 0.47293594 0.77870065
0.72337228 0.53457576 0.47265625
0.72328782 0.53461051 0.69140625
0.21484375 0.45120355 0.78515625
0.21595068 0.44917837 0.79281974
0.63671875 0.49883568 0.20703125
-0.05078125 0.48007882 0.91848499
0.44681627 0.62890625 0.52734375
0.61328125 0.49541387 0.32421875
-0.37109375 0.5127123 0.72393239
0.11328125 0.58984375 0.65932655
-0.62890625 0.51171875 0.78023469
0.61328125 0.49288195 0.46484375
0.23046875 0.49609375 0.93990916
0.08984375 0.52619272 0.96484375
0.71336752 0.52887875 0.47265625
0.46784711 0.55859375 0.51171875
0.24609375 0.45801264 0.88407212
-0.05859375 0.46273983 0.89453125
0.57421875 0.45366028 0.74609375
0.51171875 0.51434916 0.55859375
0.47265625 0.56306851 0.30078125
0.36328125 0.48828125 0.73264384
-0.0058567338 0.52734375 0.98046875
0.56640625 0.44632745 0.77734375
0.71819204 0.55078125 0.23828125
0.058475379 0.44920006 0.85553616
0.20703125 0.50547153 0.70066559
-0.07421875 0.54368567 0.98006558
-0.39453125 0.51877069 0.92652971
0.44921875 0.50390625 0.84974849
0.44880694 0.60546875 0.55078125
0.44819164 0.60546875 0.59125078
0.55859375 0.49972725 0.36328125
0.62890625 0.47265625 0.91981673
-0.16796875 0.49609375 0.6987046
0.19921875 0.44462612 0.83203125
0.46484375 0.56023383 0.90234375
0.46165985 0.57421875 0.44921875
-0.23753086 0.59765625 1.0039062
0.5436464 0.50417435 0.37890625
0.53527141 0.50390625 0.46484375
0.53996181 0.50390625 0.42578125
0.54079825 0.50390625 0.41015625
0.04296875 0.52546054 0.96484375
0.53515625 0.5065285 0.39453125
-0.64453125 0.57862455 0.60546875
0.4520629 0.63671875 0.30078125
0.45394734 0.59765625 1.2460938
0.53370482 0.50390625 0.49609375
0.52734375 0.50720906 0.48046875
0.52734375 0.50920105 0.41796875
-0.64453125 0.58878416 0.59665138
0.5196321 0.51176566 0.43511465
0.51953125 0.51363987 0.41015625
-0.31640625 0.62638211 0.65359038
0.52375054 0.51171875 0.40234375
0.51953125 0.51424295 0.38671875
0.51184964 0.51963085 0.38671875
-0.29296875 0.4829143 0.89453125
0.51953125 0.50464809 0.94039822
0.5173955 0.51171875 0.48828125
0.58292347 0.49620846 0.33203125
0.06640625 0.44636413 0.83984375
0.06640625 0.48828125 0.71104902
0.50856495 0.51953125 0.42578125
0.50322318 0.526802 0.38671875
-0.00390625 0.48828125 0.70950317
-0.00390625 0.49112198 0.70703125
-0.00390625 0.47393548 0.72473091
-0.01171875 0.48057795 0.71494216
0.00390625 0.46696615 0.73828125
0.65279096 0.48031643 0.72243208
-0.01953125 0.49609375 0.70244402
0.51068711 0.52645367 0.27734375
0.47738755 0.55859375 1.2460938
-0.01953125 0.50309867 0.69921875
-0.01953125 0.49025664 0.70703125
0.5105111 0.52630675 0.28515625
-0.01953125 0.46538574 0.73937476
-0.01953125 0.46220654 0.74609375
-0.02734375 0.47376794 0.72433013
-0.10496695 0.54348004 0.98013705
-0.02734375 0.46547487 0.73951304
-0.54296875 0.55078125 0.93832093
-0.02734375 0.4699761 0.73046875
-0.04296875 0.48828125 0.70938349
-0.04296875 0.4909682 0.70703125
-0.04296875 0.47391707 0.7247166
-0.04296875 0.46639115 0.73828125
-0.04296875 0.47072518 0.73046875
0.47307301 0.54310077 0.68373221
-0.01953125 0.51953125 0.95872289
-0.04296875 0.46408865 0.7441712
-0.05078125 0.49609375 0.70356679
-0.05078125 0.49123144 0.70703125
0.29296875 0.49195489 0.72265625
-0.05078125 0.4717223 0.72885954
-0.05859375 0.49609375 0.7040965
0.4646529 0.5660488 0.44140625
-0.05859375 0.49223956 0.70703125
0.46274132 0.57421875 0.41015625
0.49020338 0.47349194 0.83203125
